-0.00550000 0.06366380 0.10955500 255 85 0
-0.00500000 0.06368740 0.10989500 255 85 0
-0.00450000 0.06370310 0.11012200 255 85 0
-0.00400000 0.06370310 0.11012200 255 85 0
-0.00100000 0.06460770 0.12317300 255 85 0
-0.00050000 0.06473360 0.12498900 255 85 0
0.00000000 0.06479520 0.12588300 255 85 0
0.00050000 0.06480960 0.12609699 255 85 0
0.00100000 0.06480240 0.12599000 255 85 0
0.00150000 0.06478800 0.12577701 255 85 0
0.00200000 0.06476510 0.12544300 255 85 0
0.00250000 0.06472570 0.12487600 255 85 0
0.00300000 0.06467070 0.12408100 255 85 0
0.00350000 0.06458410 0.12283300 255 85 0
0.00400000 0.06448980 0.12147100 255 85 0
0.00450000 0.06434820 0.11942800 255 85 0
0.00500000 0.06425380 0.11806700 255 85 0
0.00550000 0.06408860 0.11568300 255 85 0
0.00600000 0.06394700 0.11364000 255 85 0
0.00650000 0.06381330 0.11171100 255 85 0
0.03450000 0.05954670 0.05990230 255 85 0
0.03500000 0.05958030 0.06026250 255 85 0
0.03550000 0.05959150 0.06038250 255 85 0
0.03600000 0.05956910 0.06014240 255 85 0
0.03650000 0.05956910 0.06014240 255 85 0
0.03700000 0.05956910 0.06014240 255 85 0
0.03750000 0.05967000 0.06122280 255 85 0
0.03800000 0.05969240 0.06146290 255 85 0
0.03850000 0.05971480 0.06170300 255 85 0
0.03900000 0.05972600 0.06182300 255 85 0
0.03950000 0.05978210 0.06242320 255 85 0
0.04000000 0.05977090 0.06230320 255 85 0
0.04050000 0.05973720 0.06194300 255 85 0
0.04100000 0.05973720 0.06194300 255 85 0
0.04150000 0.05973720 0.06194300 255 85 0
0.04200000 0.05975960 0.06218310 255 85 0
0.04250000 0.05974840 0.06206310 255 85 0
0.04300000 0.05974840 0.06206310 255 85 0
0.04350000 0.05978210 0.06242320 255 85 0
0.04400000 0.05977090 0.06230320 255 85 0
0.04450000 0.05977090 0.06230320 255 85 0
0.04500000 0.05973720 0.06194300 255 85 0
0.04550000 0.05974840 0.06206310 255 85 0
0.04600000 0.05973720 0.06194300 255 85 0
0.04650000 0.05972600 0.06182300 255 85 0
0.04700000 0.05973720 0.06194300 255 85 0
0.04750000 0.05972600 0.06182300 255 85 0
-0.05575000 0.05962660 0.05330110 255 85 0
-0.05525000 0.05967110 0.05378130 255 85 0
-0.05475000 0.05970440 0.05414140 255 85 0
-0.05425000 0.06021620 0.05966310 255 85 0
-0.05375000 0.06029400 0.06050330 255 85 0
-0.05325000 0.06039420 0.06158360 255 85 0
-0.05275000 0.06042750 0.06194370 255 85 0
-0.05225000 0.06053880 0.06314410 255 85 0
-0.05175000 0.06057220 0.06350420 255 85 0
-0.05125000 0.06062780 0.06410440 255 85 0
-0.05075000 0.06069450 0.06482460 255 85 0
-0.05025000 0.06072790 0.06518470 255 85 0
-0.04925000 0.06256350 0.08499070 255 85 0
-0.04875000 0.06248560 0.08415040 255 85 0
-0.04825000 0.06253010 0.08463060 255 85 0
-0.04775000 0.06249670 0.08427050 255 85 0
-0.04725000 0.06250790 0.08439050 255 85 0
-0.04675000 0.06247450 0.08403040 255 85 0
-0.04625000 0.06235210 0.08271000 255 85 0
-0.04575000 0.06229650 0.08210980 255 85 0
-0.04525000 0.06222970 0.08138960 255 85 0
-0.04475000 0.06221860 0.08126960 255 85 0
-0.04425000 0.06214070 0.08042930 255 85 0
-0.04375000 0.06208510 0.07982910 255 85 0
-0.04325000 0.06195160 0.07838870 255 85 0
-0.04275000 0.06192940 0.07814860 255 85 0
-0.04225000 0.06181810 0.07694830 255 85 0
-0.04175000 0.06176250 0.07634810 255 85 0
-0.04125000 0.06168460 0.07550780 255 85 0
-0.04075000 0.06159560 0.07454760 255 85 0
-0.04025000 0.06154000 0.07394740 255 85 0
-0.03975000 0.06148440 0.07334720 255 85 0
-0.03925000 0.06143990 0.07286700 255 85 0
-0.03875000 0.06141760 0.07262700 255 85 0
-0.03825000 0.06138430 0.07226690 255 85 0
-0.03775000 0.06136200 0.07202680 255 85 0
-0.03725000 0.06133980 0.07178670 255 85 0
-0.03675000 0.06132860 0.07166670 255 85 0
-0.03625000 0.06131750 0.07154670 255 85 0
-0.03575000 0.06131750 0.07154670 255 85 0
-0.03525000 0.06131750 0.07154670 255 85 0
-0.03475000 0.06131750 0.07154670 255 85 0
-0.03425000 0.06132860 0.07166670 255 85 0
-0.03375000 0.06135090 0.07190680 255 85 0
-0.03325000 0.06136200 0.07202680 255 85 0
-0.03275000 0.06139540 0.07238690 255 85 0
-0.03225000 0.06142880 0.07274700 255 85 0
-0.03175000 0.06147330 0.07322710 255 85 0
-0.03125000 0.06150660 0.07358730 255 85 0
-0.03075000 0.06155110 0.07406740 255 85 0
-0.03025000 0.06161790 0.07478760 255 85 0
-0.02975000 0.06170690 0.07574790 255 85 0
-0.02925000 0.06175140 0.07622800 255 85 0
-0.02875000 0.06185150 0.07730840 255 85 0
-0.02825000 0.06192940 0.07814860 255 85 0
-0.02775000 0.06199610 0.07886880 255 85 0
-0.02725000 0.06209620 0.07994920 255 85 0
-0.02675000 0.06220750 0.08114950 255 85 0
-0.02625000 0.06227420 0.08186970 255 85 0
-0.02575000 0.06237440 0.08295010 255 85 0
-0.02525000 0.06248560 0.08415040 255 85 0
-0.02475000 0.06255240 0.08487070 255 85 0
-0.02425000 0.06264140 0.08583090 255 85 0
-0.02375000 0.06271920 0.08667120 255 85 0
-0.02325000 0.06279710 0.08751140 255 85 0
-0.02275000 0.06286510 0.08833200 255 85 0
-0.02225000 0.06291210 0.08901290 255 85 0
-0.02175000 0.06293560 0.08935330 255 85 0
-0.02125000 0.06303750 0.09082850 255 85 0
-0.02075000 0.06306890 0.09128240 255 85 0
-0.02025000 0.06312370 0.09207670 255 85 0
-0.01975000 0.06320210 0.09321150 255 85 0
-0.01925000 0.06324910 0.09389230 255 85 0
-0.01875000 0.06328050 0.09434630 255 85 0
-0.01825000 0.06333530 0.09514060 255 85 0
-0.01775000 0.06338230 0.09582140 255 85 0
-0.01725000 0.06344500 0.09672920 255 85 0
-0.01675000 0.06346070 0.09695620 255 85 0
-0.01625000 0.06349990 0.09752360 255 85 0
-0.01575000 0.06353910 0.09809100 255 85 0
-0.01525000 0.06357830 0.09865830 255 85 0
-0.01475000 0.06361740 0.09922570 255 85 0
-0.01425000 0.06365660 0.09979310 255 85 0
-0.01375000 0.06368800 0.10024700 255 85 0
-0.01325000 0.06371930 0.10070100 255 85 0
-0.01275000 0.06373500 0.10092800 255 85 0
-0.01225000 0.06377420 0.10149500 255 85 0
-0.01175000 0.06381340 0.10206300 255 85 0
-0.01125000 0.06385250 0.10263000 255 85 0
-0.01075000 0.06390740 0.10342400 255 85 0
-0.01025000 0.06389960 0.10331100 255 85 0
-0.00975000 0.06394660 0.10399200 255 85 0
-0.00925000 0.06399360 0.10467300 255 85 0
-0.00875000 0.06400140 0.10478600 255 85 0
-0.00825000 0.06405630 0.10558000 255 85 0
-0.00775000 0.06404850 0.10546700 255 85 0
-0.00725000 0.06403280 0.10524000 255 85 0
-0.00675000 0.06415820 0.10705600 255 85 0
-0.00625000 0.06419740 0.10762300 255 85 0
-0.00575000 0.06420520 0.10773600 255 85 0
-0.00525000 0.06427570 0.10875800 255 85 0
-0.00475000 0.06427570 0.10875800 255 85 0
-0.00425000 0.06426010 0.10853100 255 85 0
-0.00375000 0.06432270 0.10943900 255 85 0
-0.00325000 0.06429920 0.10909800 255 85 0
-0.00275000 0.06427570 0.10875800 255 85 0
-0.00025000 0.06531020 0.12373700 255 85 0
0.00025000 0.06539640 0.12498500 255 85 0
0.00075000 0.06542770 0.12543900 255 85 0
0.00125000 0.06543560 0.12555200 255 85 0
0.00175000 0.06541210 0.12521200 255 85 0
0.00225000 0.06538850 0.12487100 255 85 0
0.00275000 0.06534940 0.12430400 255 85 0
0.00325000 0.06530230 0.12362300 255 85 0
0.00375000 0.06523180 0.12260200 255 85 0
0.00425000 0.06516130 0.12158000 255 85 0
0.00475000 0.06500450 0.11931100 255 85 0
0.00525000 0.06492620 0.11817600 255 85 0
0.00575000 0.06474590 0.11556600 255 85 0
0.00625000 0.06463620 0.11397800 255 85 0
0.00675000 0.06451870 0.11227500 255 85 0
0.03175000 0.06030520 0.06062340 255 85 0
0.03225000 0.06030520 0.06062340 255 85 0
0.03275000 0.06033850 0.06098350 255 85 0
0.03325000 0.06036080 0.06122350 255 85 0
0.03375000 0.06034970 0.06110350 255 85 0
0.03425000 0.06037190 0.06134360 255 85 0
0.03475000 0.06040530 0.06170370 255 85 0
0.03525000 0.06039420 0.06158360 255 85 0
0.03575000 0.06043870 0.06206380 255 85 0
0.03625000 0.06046090 0.06230390 255 85 0
0.03675000 0.06048320 0.06254390 255 85 0
0.03725000 0.06049430 0.06266400 255 85 0
0.03775000 0.06050540 0.06278400 255 85 0
0.03825000 0.06052770 0.06302410 255 85 0
0.03875000 0.06056100 0.06338420 255 85 0
0.03925000 0.06053880 0.06314410 255 85 0
0.03975000 0.06052770 0.06302410 255 85 0
0.04025000 0.06053880 0.06314410 255 85 0
0.04075000 0.06052770 0.06302410 255 85 0
0.04125000 0.06054990 0.06326420 255 85 0
0.04175000 0.06054990 0.06326420 255 85 0
0.04225000 0.06056100 0.06338420 255 85 0
0.04275000 0.06057220 0.06350420 255 85 0
0.04325000 0.06056100 0.06338420 255 85 0
0.04375000 0.06056100 0.06338420 255 85 0
0.04425000 0.06056100 0.06338420 255 85 0
0.04475000 0.06053880 0.06314410 255 85 0
0.04525000 0.06051650 0.06290410 255 85 0
0.04575000 0.06051650 0.06290410 255 85 0
0.04625000 0.06050540 0.06278400 255 85 0
0.04675000 0.06050540 0.06278400 255 85 0
0.04725000 0.06049430 0.06266400 255 85 0
0.04775000 0.06050540 0.06278400 255 85 0
0.04825000 0.06048320 0.06254390 255 85 0
0.04875000 0.06028290 0.06038330 255 85 0
-0.05500000 0.06034490 0.05354240 255 85 0
-0.05450000 0.06038910 0.05402250 255 85 0
-0.05400000 0.06040010 0.05414250 255 85 0
-0.05350000 0.06097430 0.06038410 255 85 0
-0.05300000 0.06106260 0.06134430 255 85 0
-0.05250000 0.06112890 0.06206450 255 85 0
-0.05200000 0.06121720 0.06302470 255 85 0
-0.05150000 0.06123930 0.06326480 255 85 0
-0.05100000 0.06345880 0.08739090 255 85 0
-0.05050000 0.06349190 0.08775090 255 85 0
-0.05000000 0.06348090 0.08763090 255 85 0
-0.04950000 0.06348090 0.08763090 255 85 0
-0.04900000 0.06346980 0.08751090 255 85 0
-0.04850000 0.06346980 0.08751090 255 85 0
-0.04800000 0.06340360 0.08679070 255 85 0
-0.04750000 0.06339250 0.08667070 255 85 0
-0.04700000 0.06332630 0.08595050 255 85 0
-0.04650000 0.06328210 0.08547040 255 85 0
-0.04600000 0.06323800 0.08499020 255 85 0
-0.04550000 0.06317170 0.08427010 255 85 0
-0.04500000 0.06305020 0.08294970 255 85 0
-0.04450000 0.06298400 0.08222960 255 85 0
-0.04400000 0.06296190 0.08198950 255 85 0
-0.04350000 0.06285150 0.08078920 255 85 0
-0.04300000 0.06271900 0.07934880 255 85 0
-0.04250000 0.06267480 0.07886870 255 85 0
-0.04200000 0.06260850 0.07814850 255 85 0
-0.04150000 0.06248710 0.07682820 255 85 0
-0.04100000 0.06242080 0.07610800 255 85 0
-0.04050000 0.06233250 0.07514780 255 85 0
-0.04000000 0.06228830 0.07466770 255 85 0
-0.03950000 0.06221100 0.07382740 255 85 0
-0.03900000 0.06217790 0.07346740 255 85 0
-0.03850000 0.06212270 0.07286720 255 85 0
-0.03800000 0.06210060 0.07262720 255 85 0
-0.03750000 0.06206750 0.07226710 255 85 0
-0.03700000 0.06204540 0.07202700 255 85 0
-0.03650000 0.06202330 0.07178690 255 85 0
-0.03600000 0.06200120 0.07154690 255 85 0
-0.03550000 0.06200120 0.07154690 255 85 0
-0.03500000 0.06200120 0.07154690 255 85 0
-0.03450000 0.06199020 0.07142680 255 85 0
-0.03400000 0.06200120 0.07154690 255 85 0
-0.03350000 0.06201230 0.07166690 255 85 0
-0.03300000 0.06203430 0.07190700 255 85 0
-0.03250000 0.06205640 0.07214700 255 85 0
-0.03200000 0.06208960 0.07250710 255 85 0
-0.03150000 0.06213370 0.07298730 255 85 0
-0.03100000 0.06216690 0.07334730 255 85 0
-0.03050000 0.06221100 0.07382740 255 85 0
-0.03000000 0.06226620 0.07442760 255 85 0
-0.02950000 0.06232140 0.07502770 255 85 0
-0.02900000 0.06238770 0.07574790 255 85 0
-0.02850000 0.06247600 0.07670820 255 85 0
-0.02800000 0.06256440 0.07766840 255 85 0
-0.02750000 0.06263060 0.07838860 255 85 0
-0.02700000 0.06270790 0.07922880 255 85 0
-0.02650000 0.06281830 0.08042910 255 85 0
-0.02600000 0.06288460 0.08114930 255 85 0
-0.02550000 0.06298400 0.08222960 255 85 0
-0.02500000 0.06310540 0.08354990 255 85 0
-0.02450000 0.06317170 0.08427010 255 85 0
-0.02400000 0.06327110 0.08535030 255 85 0
-0.02350000 0.06332630 0.08595050 255 85 0
-0.02300000 0.06342570 0.08703080 255 85 0
-0.02250000 0.06349190 0.08775090 255 85 0
-0.02200000 0.06354520 0.08844490 255 85 0
-0.02150000 0.06356870 0.08878530 255 85 0
-0.02100000 0.06367010 0.09026030 255 85 0
-0.02050000 0.06368580 0.09048720 255 85 0
-0.02000000 0.06375600 0.09150840 255 85 0
-0.01950000 0.06381850 0.09241610 255 85 0
-0.01900000 0.06387310 0.09321030 255 85 0
-0.01850000 0.06388880 0.09343730 255 85 0
-0.01800000 0.06395900 0.09445840 255 85 0
-0.01750000 0.06397460 0.09468540 255 85 0
-0.01700000 0.06404490 0.09570650 255 85 0
-0.01650000 0.06406830 0.09604690 255 85 0
-0.01600000 0.06410740 0.09661420 255 85 0
-0.01550000 0.06413860 0.09706810 255 85 0
-0.01500000 0.06416200 0.09740850 255 85 0
-0.01450000 0.06419320 0.09786240 255 85 0
-0.01400000 0.06422450 0.09831620 255 85 0
-0.01350000 0.06426350 0.09888350 255 85 0
-0.01300000 0.06427130 0.09899700 255 85 0
-0.01250000 0.06427130 0.09899700 255 85 0
-0.01200000 0.06431030 0.09956430 255 85 0
-0.01150000 0.06434940 0.10013200 255 85 0
-0.01100000 0.06436500 0.10035900 255 85 0
-0.01050000 0.06438840 0.10069900 255 85 0
-0.01000000 0.06443530 0.10138000 255 85 0
-0.00950000 0.06443530 0.10138000 255 85 0
-0.00900000 0.06446650 0.10183400 255 85 0
-0.00850000 0.06448210 0.10206100 255 85 0
-0.00800000 0.06449770 0.10228700 255 85 0
-0.00750000 0.06449770 0.10228700 255 85 0
-0.00700000 0.06450550 0.10240100 255 85 0
-0.00650000 0.06452110 0.10262800 255 85 0
-0.00600000 0.06468510 0.10501100 255 85 0
-0.00550000 0.06467730 0.10489700 255 85 0
-0.00500000 0.06474750 0.10591800 255 85 0
-0.00450000 0.06478660 0.10648600 255 85 0
-0.00400000 0.06482560 0.10705300 255 85 0
-0.00350000 0.06481000 0.10682600 255 85 0
-0.00300000 0.06491930 0.10841500 255 85 0
0.00050000 0.06598890 0.12395900 255 85 0
0.00100000 0.06602010 0.12441300 255 85 0
0.00150000 0.06604350 0.12475300 255 85 0
0.00200000 0.06603570 0.12464000 255 85 0
0.00250000 0.06600450 0.12418600 255 85 0
0.00300000 0.06596550 0.12361900 255 85 0
0.00350000 0.06592640 0.12305100 255 85 0
0.00400000 0.06585620 0.12203000 255 85 0
0.00450000 0.06579370 0.12112200 255 85 0
0.00500000 0.06565320 0.11908000 255 85 0
0.00550000 0.06559850 0.11828600 255 85 0
0.00600000 0.06539550 0.11533600 255 85 0
0.00650000 0.06529400 0.11386100 255 85 0
0.00700000 0.06514570 0.11170500 255 85 0
0.02650000 0.06083070 0.05882370 255 85 0
0.02700000 0.06087490 0.05930380 255 85 0
0.02750000 0.06090800 0.05966390 255 85 0
0.02800000 0.06093010 0.05990400 255 85 0
0.02850000 0.06095220 0.06014400 255 85 0
0.02900000 0.06098530 0.06050410 255 85 0
0.02950000 0.06101850 0.06086420 255 85 0
0.03000000 0.06102950 0.06098420 255 85 0
0.03050000 0.06105160 0.06122430 255 85 0
0.03100000 0.06107370 0.06146440 255 85 0
0.03150000 0.06107370 0.06146440 255 85 0
0.03200000 0.06109580 0.06170440 255 85 0
0.03250000 0.06111780 0.06194450 255 85 0
0.03300000 0.06110680 0.06182440 255 85 0
0.03350000 0.06113990 0.06218450 255 85 0
0.03400000 0.06113990 0.06218450 255 85 0
0.03450000 0.06117310 0.06254460 255 85 0
0.03500000 0.06121720 0.06302470 255 85 0
0.03550000 0.06122830 0.06314480 255 85 0
0.03600000 0.06126140 0.06350490 255 85 0
0.03650000 0.06126140 0.06350490 255 85 0
0.03700000 0.06129450 0.06386500 255 85 0
0.03750000 0.06132760 0.06422500 255 85 0
0.03800000 0.06133870 0.06434510 255 85 0
0.03850000 0.06132760 0.06422500 255 85 0
0.03900000 0.06131660 0.06410500 255 85 0
0.03950000 0.06131660 0.06410500 255 85 0
0.04000000 0.06132760 0.06422500 255 85 0
0.04050000 0.06134970 0.06446510 255 85 0
0.04100000 0.06137180 0.06470520 255 85 0
0.04150000 0.06137180 0.06470520 255 85 0
0.04200000 0.06138290 0.06482520 255 85 0
0.04250000 0.06137180 0.06470520 255 85 0
0.04300000 0.06138290 0.06482520 255 85 0
0.04350000 0.06137180 0.06470520 255 85 0
0.04400000 0.06137180 0.06470520 255 85 0
0.04450000 0.06137180 0.06470520 255 85 0
0.04500000 0.06136080 0.06458510 255 85 0
0.04550000 0.06134970 0.06446510 255 85 0
0.04600000 0.06131660 0.06410500 255 85 0
0.04650000 0.06129450 0.06386500 255 85 0
0.04700000 0.06129450 0.06386500 255 85 0
0.04750000 0.06128350 0.06374490 255 85 0
0.04800000 0.06129450 0.06386500 255 85 0
0.04850000 0.06129450 0.06386500 255 85 0
0.04900000 0.06128350 0.06374490 255 85 0
0.04950000 0.06118410 0.06266470 255 85 0
-0.05475000 0.06052490 0.04788880 255 85 0
-0.05425000 0.06052490 0.04788880 255 85 0
-0.05375000 0.06139170 0.05738430 255 85 0
-0.05325000 0.06139170 0.05738430 255 85 0
-0.05275000 0.06168760 0.06062490 255 85 0
-0.05225000 0.06175340 0.06134510 255 85 0
-0.05175000 0.06425640 0.08901150 255 85 0
-0.05125000 0.06428750 0.08946530 255 85 0
-0.05075000 0.06431860 0.08991910 255 85 0
-0.05025000 0.06429530 0.08957870 255 85 0
-0.04975000 0.06427970 0.08935180 255 85 0
-0.04925000 0.06427200 0.08923840 255 85 0
-0.04875000 0.06425640 0.08901150 255 85 0
-0.04825000 0.06422530 0.08855770 255 85 0
-0.04775000 0.06420970 0.08833080 255 85 0
-0.04725000 0.06416450 0.08775040 255 85 0
-0.04675000 0.06414260 0.08751030 255 85 0
-0.04625000 0.06407680 0.08679020 255 85 0
-0.04575000 0.06401100 0.08607000 255 85 0
-0.04525000 0.06395630 0.08546990 255 85 0
-0.04475000 0.06384670 0.08426970 255 85 0
-0.04425000 0.06373710 0.08306940 255 85 0
-0.04375000 0.06370420 0.08270930 255 85 0
-0.04325000 0.06364940 0.08210920 255 85 0
-0.04275000 0.06356170 0.08114900 255 85 0
-0.04225000 0.06344110 0.07982880 255 85 0
-0.04175000 0.06336440 0.07898860 255 85 0
-0.04125000 0.06323290 0.07754830 255 85 0
-0.04075000 0.06315620 0.07670810 255 85 0
-0.04025000 0.06307950 0.07586800 255 85 0
-0.03975000 0.06303560 0.07538790 255 85 0
-0.03925000 0.06294800 0.07442770 255 85 0
-0.03875000 0.06290410 0.07394760 255 85 0
-0.03825000 0.06284930 0.07334750 255 85 0
-0.03775000 0.06280550 0.07286740 255 85 0
-0.03725000 0.06276160 0.07238730 255 85 0
-0.03675000 0.06272880 0.07202720 255 85 0
-0.03625000 0.06269590 0.07166710 255 85 0
-0.03575000 0.06268490 0.07154710 255 85 0
-0.03525000 0.06267400 0.07142710 255 85 0
-0.03475000 0.06266300 0.07130710 255 85 0
-0.03425000 0.06266300 0.07130710 255 85 0
-0.03375000 0.06266300 0.07130710 255 85 0
-0.03325000 0.06267400 0.07142710 255 85 0
-0.03275000 0.06269590 0.07166710 255 85 0
-0.03225000 0.06271780 0.07190720 255 85 0
-0.03175000 0.06275070 0.07226730 255 85 0
-0.03125000 0.06278360 0.07262730 255 85 0
-0.03075000 0.06282740 0.07310740 255 85 0
-0.03025000 0.06286030 0.07346750 255 85 0
-0.02975000 0.06291510 0.07406760 255 85 0
-0.02925000 0.06295890 0.07454770 255 85 0
-0.02875000 0.06302470 0.07526790 255 85 0
-0.02825000 0.06307950 0.07586800 255 85 0
-0.02775000 0.06317810 0.07694820 255 85 0
-0.02725000 0.06323290 0.07754830 255 85 0
-0.02675000 0.06330960 0.07838850 255 85 0
-0.02625000 0.06343020 0.07970870 255 85 0
-0.02575000 0.06349590 0.08042890 255 85 0
-0.02525000 0.06357270 0.08126910 255 85 0
-0.02475000 0.06362750 0.08186920 255 85 0
-0.02425000 0.06374800 0.08318940 255 85 0
-0.02375000 0.06386860 0.08450970 255 85 0
-0.02325000 0.06394530 0.08534990 255 85 0
-0.02275000 0.06402200 0.08619000 255 85 0
-0.02225000 0.06408780 0.08691020 255 85 0
-0.02175000 0.06415350 0.08763030 255 85 0
-0.02125000 0.06420200 0.08821730 255 85 0
-0.02075000 0.06424860 0.08889800 255 85 0
-0.02025000 0.06429530 0.08957870 255 85 0
-0.01975000 0.06435750 0.09048630 255 85 0
-0.01925000 0.06441970 0.09139400 255 85 0
-0.01875000 0.06448200 0.09230160 255 85 0
-0.01825000 0.06450530 0.09264190 255 85 0
-0.01775000 0.06457530 0.09366300 255 85 0
-0.01725000 0.06459860 0.09400340 255 85 0
-0.01675000 0.06464530 0.09468410 255 85 0
-0.01625000 0.06468420 0.09525130 255 85 0
-0.01575000 0.06470750 0.09559170 255 85 0
-0.01525000 0.06473860 0.09604550 255 85 0
-0.01475000 0.06475420 0.09627240 255 85 0
-0.01425000 0.06477750 0.09661270 255 85 0
-0.01375000 0.06480860 0.09706650 255 85 0
-0.01325000 0.06483970 0.09752040 255 85 0
-0.01275000 0.06485530 0.09774730 255 85 0
-0.01225000 0.06486310 0.09786070 255 85 0
-0.01175000 0.06486310 0.09786070 255 85 0
-0.01125000 0.06487080 0.09797420 255 85 0
-0.01075000 0.06489420 0.09831450 255 85 0
-0.01025000 0.06494080 0.09899520 255 85 0
-0.00975000 0.06497970 0.09956250 255 85 0
-0.00925000 0.06503420 0.10035700 255 85 0
-0.00875000 0.06507310 0.10092400 255 85 0
-0.00825000 0.06508080 0.10103700 255 85 0
-0.00775000 0.06506530 0.10081000 255 85 0
-0.00725000 0.06509640 0.10126400 255 85 0
-0.00675000 0.06504970 0.10058400 255 85 0
-0.00625000 0.06508080 0.10103700 255 85 0
-0.00575000 0.06507310 0.10092400 255 85 0
-0.00375000 0.06544640 0.10637000 255 85 0
-0.00325000 0.06545420 0.10648300 255 85 0
-0.00275000 0.06544640 0.10637000 255 85 0
0.00125000 0.06660530 0.12327400 255 85 0
0.00175000 0.06662860 0.12361400 255 85 0
0.00225000 0.06662080 0.12350100 255 85 0
0.00275000 0.06661300 0.12338700 255 85 0
0.00325000 0.06657420 0.12282000 255 85 0
0.00375000 0.06652750 0.12213900 255 85 0
0.00425000 0.06648860 0.12157200 255 85 0
0.00475000 0.06638750 0.12009700 255 85 0
0.00525000 0.06628640 0.11862200 255 85 0
0.00575000 0.06616970 0.11692100 255 85 0
0.00625000 0.06602970 0.11487800 255 85 0
0.00675000 0.06592860 0.11340400 255 85 0
0.02525000 0.06153420 0.05894460 255 85 0
0.02575000 0.06157800 0.05942470 255 85 0
0.02625000 0.06158900 0.05954470 255 85 0
0.02675000 0.06163280 0.06002480 255 85 0
0.02725000 0.06167660 0.06050490 255 85 0
0.02775000 0.06169860 0.06074490 255 85 0
0.02825000 0.06173140 0.06110500 255 85 0
0.02875000 0.06173140 0.06110500 255 85 0
0.02925000 0.06176430 0.06146510 255 85 0
0.02975000 0.06178620 0.06170510 255 85 0
0.03025000 0.06179720 0.06182510 255 85 0
0.03075000 0.06183010 0.06218520 255 85 0
0.03125000 0.06183010 0.06218520 255 85 0
0.03175000 0.06186300 0.06254530 255 85 0
0.03225000 0.06189580 0.06290540 255 85 0
0.03275000 0.06192870 0.06326540 255 85 0
0.03325000 0.06195060 0.06350550 255 85 0
0.03375000 0.06196160 0.06362550 255 85 0
0.03425000 0.06199450 0.06398560 255 85 0
0.03475000 0.06200540 0.06410560 255 85 0
0.03525000 0.06202740 0.06434570 255 85 0
0.03575000 0.06206020 0.06470570 255 85 0
0.03625000 0.06208220 0.06494580 255 85 0
0.03675000 0.06209310 0.06506580 255 85 0
0.03725000 0.06210410 0.06518580 255 85 0
0.03775000 0.06210410 0.06518580 255 85 0
0.03825000 0.06209310 0.06506580 255 85 0
0.03875000 0.06211500 0.06530590 255 85 0
0.03925000 0.06214790 0.06566590 255 85 0
0.03975000 0.06214790 0.06566590 255 85 0
0.04025000 0.06214790 0.06566590 255 85 0
0.04075000 0.06215890 0.06578600 255 85 0
0.04125000 0.06216980 0.06590600 255 85 0
0.04175000 0.06216980 0.06590600 255 85 0
0.04225000 0.06216980 0.06590600 255 85 0
0.04275000 0.06216980 0.06590600 255 85 0
0.04325000 0.06216980 0.06590600 255 85 0
0.04375000 0.06215890 0.06578600 255 85 0
0.04425000 0.06214790 0.06566590 255 85 0
0.04475000 0.06215890 0.06578600 255 85 0
0.04525000 0.06213700 0.06554590 255 85 0
0.04575000 0.06211500 0.06530590 255 85 0
0.04625000 0.06211500 0.06530590 255 85 0
0.04675000 0.06209310 0.06506580 255 85 0
0.04725000 0.06208220 0.06494580 255 85 0
0.04775000 0.06207120 0.06482580 255 85 0
0.04825000 0.06206020 0.06470570 255 85 0
0.04875000 0.06203830 0.06446570 255 85 0
0.04925000 0.06204930 0.06458570 255 85 0
0.04975000 0.06203830 0.06446570 255 85 0
0.05025000 0.06192870 0.06326540 255 85 0
0.05075000 0.06188490 0.06278540 255 85 0
-0.05500000 0.06105330 0.04598770 255 85 0
-0.05450000 0.06119050 0.04750970 255 85 0
-0.05350000 0.06207430 0.05726520 255 85 0
-0.05250000 0.06511450 0.09173330 255 85 0
-0.05200000 0.06511450 0.09173330 255 85 0
-0.05150000 0.06511450 0.09173330 255 85 0
-0.05100000 0.06511450 0.09173330 255 85 0
-0.05050000 0.06509120 0.09139300 255 85 0
-0.05000000 0.06509120 0.09139300 255 85 0
-0.04950000 0.06506030 0.09093920 255 85 0
-0.04900000 0.06506030 0.09093920 255 85 0
-0.04850000 0.06502150 0.09037200 255 85 0
-0.04800000 0.06499050 0.08991830 255 85 0
-0.04750000 0.06497500 0.08969140 255 85 0
-0.04700000 0.06491300 0.08878390 255 85 0
-0.04650000 0.06489750 0.08855700 255 85 0
-0.04600000 0.06484790 0.08786980 255 85 0
-0.04550000 0.06481530 0.08750970 255 85 0
-0.04500000 0.06470650 0.08630950 255 85 0
-0.04450000 0.06458690 0.08498930 255 85 0
-0.04400000 0.06452160 0.08426920 255 85 0
-0.04350000 0.06442370 0.08318910 255 85 0
-0.04300000 0.06439110 0.08282900 255 85 0
-0.04250000 0.06433670 0.08222900 255 85 0
-0.04200000 0.06423880 0.08114880 255 85 0
-0.04150000 0.06415180 0.08018860 255 85 0
-0.04100000 0.06397780 0.07826830 255 85 0
-0.04050000 0.06391250 0.07754820 255 85 0
-0.04000000 0.06380370 0.07634800 255 85 0
-0.03950000 0.06374930 0.07574800 255 85 0
-0.03900000 0.06367320 0.07490780 255 85 0
-0.03850000 0.06364060 0.07454780 255 85 0
-0.03800000 0.06358620 0.07394770 255 85 0
-0.03750000 0.06352090 0.07322760 255 85 0
-0.03700000 0.06344480 0.07238740 255 85 0
-0.03650000 0.06341210 0.07202740 255 85 0
-0.03600000 0.06337950 0.07166740 255 85 0
-0.03550000 0.06335780 0.07142730 255 85 0
-0.03500000 0.06334690 0.07130730 255 85 0
-0.03450000 0.06333600 0.07118730 255 85 0
-0.03400000 0.06333600 0.07118730 255 85 0
-0.03350000 0.06332510 0.07106730 255 85 0
-0.03300000 0.06334690 0.07130730 255 85 0
-0.03250000 0.06335780 0.07142730 255 85 0
-0.03200000 0.06337950 0.07166740 255 85 0
-0.03150000 0.06341210 0.07202740 255 85 0
-0.03100000 0.06344480 0.07238740 255 85 0
-0.03050000 0.06348830 0.07286750 255 85 0
-0.03000000 0.06352090 0.07322760 255 85 0
-0.02950000 0.06356440 0.07370760 255 85 0
-0.02900000 0.06359710 0.07406770 255 85 0
-0.02850000 0.06366230 0.07478780 255 85 0
-0.02800000 0.06370580 0.07526790 255 85 0
-0.02750000 0.06379280 0.07622800 255 85 0
-0.02700000 0.06383640 0.07670810 255 85 0
-0.02650000 0.06389070 0.07730820 255 85 0
-0.02600000 0.06393430 0.07778830 255 85 0
-0.02550000 0.06403210 0.07886840 255 85 0
-0.02500000 0.06408650 0.07946850 255 85 0
-0.02450000 0.06419530 0.08066870 255 85 0
-0.02400000 0.06430410 0.08186890 255 85 0
-0.02350000 0.06436930 0.08258900 255 85 0
-0.02300000 0.06447810 0.08378920 255 85 0
-0.02250000 0.06457600 0.08486930 255 85 0
-0.02200000 0.06464130 0.08558940 255 85 0
-0.02150000 0.06470650 0.08630950 255 85 0
-0.02100000 0.06473920 0.08666960 255 85 0
-0.02050000 0.06477180 0.08702970 255 85 0
-0.02000000 0.06490530 0.08867040 255 85 0
-0.01950000 0.06488980 0.08844360 255 85 0
-0.01900000 0.06499050 0.08991830 255 85 0
-0.01850000 0.06502150 0.09037200 255 85 0
-0.01800000 0.06506800 0.09105270 255 85 0
-0.01750000 0.06511450 0.09173330 255 85 0
-0.01700000 0.06519970 0.09298120 255 85 0
-0.01650000 0.06522300 0.09332150 255 85 0
-0.01600000 0.06526950 0.09400210 255 85 0
-0.01550000 0.06530040 0.09445590 255 85 0
-0.01500000 0.06533140 0.09490960 255 85 0
-0.01450000 0.06536240 0.09536340 255 85 0
-0.01400000 0.06536240 0.09536340 255 85 0
-0.01350000 0.06537790 0.09559030 255 85 0
-0.01300000 0.06544770 0.09661120 255 85 0
-0.01250000 0.06546320 0.09683810 255 85 0
-0.01200000 0.06548640 0.09717840 255 85 0
-0.01150000 0.06549420 0.09729190 255 85 0
-0.01100000 0.06550960 0.09751870 255 85 0
-0.01050000 0.06551740 0.09763220 255 85 0
-0.01000000 0.06554060 0.09797250 255 85 0
-0.00950000 0.06556390 0.09831280 255 85 0
-0.00900000 0.06560260 0.09888000 255 85 0
-0.00850000 0.06561040 0.09899350 255 85 0
-0.00800000 0.06562590 0.09922030 255 85 0
-0.00750000 0.06562590 0.09922030 255 85 0
-0.00700000 0.06563360 0.09933380 255 85 0
-0.00650000 0.06564140 0.09944720 255 85 0
-0.00600000 0.06557160 0.09842630 255 85 0
0.00150000 0.06713680 0.12134100 255 85 0
0.00200000 0.06722200 0.12258900 255 85 0
0.00250000 0.06721430 0.12247500 255 85 0
0.00300000 0.06719880 0.12224900 255 85 0
0.00350000 0.06717550 0.12190800 255 85 0
0.00400000 0.06712900 0.12122800 255 85 0
0.00450000 0.06705150 0.12009300 255 85 0
0.00500000 0.06697410 0.11895900 255 85 0
0.00550000 0.06691210 0.11805100 255 85 0
0.00600000 0.06673390 0.11544200 255 85 0
0.00650000 0.06664860 0.11419400 255 85 0
0.02300000 0.06218300 0.05846540 255 85 0
0.02350000 0.06220480 0.05870540 255 85 0
0.02400000 0.06225920 0.05930550 255 85 0
0.02450000 0.06230270 0.05978560 255 85 0
0.02500000 0.06232440 0.06002560 255 85 0
0.02550000 0.06235710 0.06038570 255 85 0
0.02600000 0.06237880 0.06062570 255 85 0
0.02650000 0.06240060 0.06086570 255 85 0
0.02700000 0.06243320 0.06122580 255 85 0
0.02750000 0.06245500 0.06146580 255 85 0
0.02800000 0.06247670 0.06170590 255 85 0
0.02850000 0.06249850 0.06194590 255 85 0
0.02900000 0.06252020 0.06218590 255 85 0
0.02950000 0.06254200 0.06242590 255 85 0
0.03000000 0.06256370 0.06266600 255 85 0
0.03050000 0.06258550 0.06290600 255 85 0
0.03100000 0.06262900 0.06338610 255 85 0
0.03150000 0.06262900 0.06338610 255 85 0
0.03200000 0.06265070 0.06362610 255 85 0
0.03250000 0.06269430 0.06410620 255 85 0
0.03300000 0.06272690 0.06446630 255 85 0
0.03350000 0.06274860 0.06470630 255 85 0
0.03400000 0.06277040 0.06494630 255 85 0
0.03450000 0.06279220 0.06518640 255 85 0
0.03500000 0.06281390 0.06542640 255 85 0
0.03550000 0.06283570 0.06566640 255 85 0
0.03600000 0.06285740 0.06590650 255 85 0
0.03650000 0.06285740 0.06590650 255 85 0
0.03700000 0.06285740 0.06590650 255 85 0
0.03750000 0.06289000 0.06626650 255 85 0
0.03800000 0.06290090 0.06638650 255 85 0
0.03850000 0.06292270 0.06662660 255 85 0
0.03900000 0.06293360 0.06674660 255 85 0
0.03950000 0.06292270 0.06662660 255 85 0
0.04000000 0.06294440 0.06686660 255 85 0
0.04050000 0.06295530 0.06698660 255 85 0
0.04100000 0.06295530 0.06698660 255 85 0
0.04150000 0.06296620 0.06710670 255 85 0
0.04200000 0.06297710 0.06722670 255 85 0
0.04250000 0.06295530 0.06698660 255 85 0
0.04300000 0.06296620 0.06710670 255 85 0
0.04350000 0.06295530 0.06698660 255 85 0
0.04400000 0.06294440 0.06686660 255 85 0
0.04450000 0.06293360 0.06674660 255 85 0
0.04500000 0.06291180 0.06650660 255 85 0
0.04550000 0.06292270 0.06662660 255 85 0
0.04600000 0.06291180 0.06650660 255 85 0
0.04650000 0.06289000 0.06626650 255 85 0
0.04700000 0.06289000 0.06626650 255 85 0
0.04750000 0.06286830 0.06602650 255 85 0
0.04800000 0.06284650 0.06578650 255 85 0
0.04850000 0.06283570 0.06566640 255 85 0
0.04900000 0.06280300 0.06530640 255 85 0
0.04950000 0.06280300 0.06530640 255 85 0
0.05000000 0.06279220 0.06518640 255 85 0
0.05050000 0.06275950 0.06482630 255 85 0
0.05100000 0.06265070 0.06362610 255 85 0
0.05150000 0.06258550 0.06290600 255 85 0
0.05200000 0.06259640 0.06302600 255 85 0
-0.05375000 0.06592490 0.09377400 255 85 0
-0.05325000 0.06595570 0.09422770 255 85 0
-0.05275000 0.06596340 0.09434120 255 85 0
-0.05225000 0.06593260 0.09388740 255 85 0
-0.05175000 0.06593260 0.09388740 255 85 0
-0.05125000 0.06591710 0.09366060 255 85 0
-0.05075000 0.06587850 0.09309340 255 85 0
-0.05025000 0.06585540 0.09275320 255 85 0
-0.04975000 0.06584770 0.09263980 255 85 0
-0.04925000 0.06580140 0.09195920 255 85 0
-0.04875000 0.06578590 0.09173230 255 85 0
-0.04825000 0.06577050 0.09150550 255 85 0
-0.04775000 0.06572420 0.09082490 255 85 0
-0.04725000 0.06570870 0.09059800 255 85 0
-0.04675000 0.06568560 0.09025780 255 85 0
-0.04625000 0.06564700 0.08969060 255 85 0
-0.04575000 0.06558520 0.08878320 255 85 0
-0.04525000 0.06555440 0.08832950 255 85 0
-0.04475000 0.06544480 0.08702910 255 85 0
-0.04425000 0.06539090 0.08642910 255 85 0
-0.04375000 0.06527210 0.08510890 255 85 0
-0.04325000 0.06517500 0.08402880 255 85 0
-0.04275000 0.06511020 0.08330870 255 85 0
-0.04225000 0.06505620 0.08270870 255 85 0
-0.04175000 0.06501310 0.08222860 255 85 0
-0.04125000 0.06489430 0.08090850 255 85 0
-0.04075000 0.06479720 0.07982840 255 85 0
-0.04025000 0.06462450 0.07790820 255 85 0
-0.03975000 0.06453810 0.07694810 255 85 0
-0.03925000 0.06449490 0.07646800 255 85 0
-0.03875000 0.06438700 0.07526790 255 85 0
-0.03825000 0.06435460 0.07490790 255 85 0
-0.03775000 0.06428980 0.07418780 255 85 0
-0.03725000 0.06422510 0.07346780 255 85 0
-0.03675000 0.06414950 0.07262770 255 85 0
-0.03625000 0.06409550 0.07202760 255 85 0
-0.03575000 0.06405230 0.07154760 255 85 0
-0.03525000 0.06404150 0.07142750 255 85 0
-0.03475000 0.06403080 0.07130750 255 85 0
-0.03425000 0.06402000 0.07118750 255 85 0
-0.03375000 0.06400920 0.07106750 255 85 0
-0.03325000 0.06400920 0.07106750 255 85 0
-0.03275000 0.06400920 0.07106750 255 85 0
-0.03225000 0.06402000 0.07118750 255 85 0
-0.03175000 0.06404150 0.07142750 255 85 0
-0.03125000 0.06406310 0.07166760 255 85 0
-0.03075000 0.06410630 0.07214760 255 85 0
-0.03025000 0.06412790 0.07238760 255 85 0
-0.02975000 0.06416030 0.07274770 255 85 0
-0.02925000 0.06419270 0.07310770 255 85 0
-0.02875000 0.06422510 0.07346780 255 85 0
-0.02825000 0.06426820 0.07394780 255 85 0
-0.02775000 0.06431140 0.07442790 255 85 0
-0.02725000 0.06436540 0.07502790 255 85 0
-0.02675000 0.06443020 0.07574800 255 85 0
-0.02625000 0.06448410 0.07634800 255 85 0
-0.02575000 0.06451650 0.07670810 255 85 0
-0.02525000 0.06457050 0.07730810 255 85 0
-0.02475000 0.06459210 0.07754820 255 85 0
-0.02425000 0.06464600 0.07814820 255 85 0
-0.02375000 0.06466760 0.07838820 255 85 0
-0.02325000 0.06468920 0.07862830 255 85 0
-0.02275000 0.06493750 0.08138860 255 85 0
-0.02225000 0.06504540 0.08258870 255 85 0
-0.02175000 0.06499150 0.08198860 255 85 0
-0.02125000 0.06526130 0.08498890 255 85 0
-0.02075000 0.06529370 0.08534890 255 85 0
-0.02025000 0.06532610 0.08570900 255 85 0
-0.01975000 0.06536930 0.08618900 255 85 0
-0.01925000 0.06546640 0.08726910 255 85 0
-0.01875000 0.06543410 0.08690910 255 85 0
-0.01825000 0.06542330 0.08678910 255 85 0
-0.01775000 0.06546640 0.08726910 255 85 0
-0.01725000 0.06549880 0.08762920 255 85 0
-0.01675000 0.06571650 0.09071150 255 85 0
-0.01625000 0.06573190 0.09093830 255 85 0
-0.01575000 0.06575500 0.09127860 255 85 0
-0.01525000 0.06573960 0.09105180 255 85 0
-0.01475000 0.06569330 0.09037120 255 85 0
-0.01425000 0.06589400 0.09332030 255 85 0
-0.01375000 0.06594800 0.09411430 255 85 0
-0.01325000 0.06595570 0.09422770 255 85 0
-0.01275000 0.06596340 0.09434120 255 85 0
-0.01225000 0.06598660 0.09468140 255 85 0
-0.01175000 0.06597890 0.09456800 255 85 0
-0.01125000 0.06606380 0.09581570 255 85 0
-0.01075000 0.06607150 0.09592920 255 85 0
-0.01025000 0.06607150 0.09592920 255 85 0
-0.00975000 0.06607150 0.09592920 255 85 0
-0.00925000 0.06608690 0.09615600 255 85 0
-0.00875000 0.06604060 0.09547540 255 85 0
-0.00825000 0.06604840 0.09558890 255 85 0
-0.00775000 0.06605610 0.09570230 255 85 0
0.00275000 0.06780050 0.12133700 255 85 0
0.00325000 0.06777730 0.12099700 255 85 0
0.00375000 0.06776190 0.12077000 255 85 0
0.00425000 0.06769240 0.11974900 255 85 0
0.00475000 0.06763070 0.11884200 255 85 0
0.00525000 0.06755350 0.11770700 255 85 0
0.00575000 0.06739140 0.11532500 255 85 0
0.00625000 0.06732970 0.11441800 255 85 0
0.01925000 0.06249790 0.05426580 255 85 0
0.01975000 0.06255190 0.05486590 255 85 0
0.02025000 0.06267060 0.05618600 255 85 0
0.02075000 0.06272460 0.05678610 255 85 0
0.02125000 0.06276780 0.05726610 255 85 0
0.02175000 0.06282180 0.05786620 255 85 0
0.02225000 0.06288650 0.05858620 255 85 0
0.02275000 0.06292970 0.05906630 255 85 0
0.02325000 0.06297290 0.05954630 255 85 0
0.02375000 0.06300530 0.05990640 255 85 0
0.02425000 0.06302690 0.06014640 255 85 0
0.02475000 0.06308080 0.06074650 255 85 0
0.02525000 0.06310240 0.06098650 255 85 0
0.02575000 0.06314560 0.06146660 255 85 0
0.02625000 0.06315640 0.06158660 255 85 0
0.02675000 0.06317800 0.06182660 255 85 0
0.02725000 0.06321040 0.06218660 255 85 0
0.02775000 0.06324270 0.06254660 255 85 0
0.02825000 0.06327510 0.06290670 255 85 0
0.02875000 0.06329670 0.06314670 255 85 0
0.02925000 0.06330750 0.06326670 255 85 0
0.02975000 0.06335070 0.06374680 255 85 0
0.03025000 0.06337230 0.06398680 255 85 0
0.03075000 0.06340470 0.06434680 255 85 0
0.03125000 0.06340470 0.06434680 255 85 0
0.03175000 0.06343710 0.06470690 255 85 0
0.03225000 0.06344780 0.06482690 255 85 0
0.03275000 0.06345860 0.06494690 255 85 0
0.03325000 0.06349100 0.06530690 255 85 0
0.03375000 0.06352340 0.06566700 255 85 0
0.03425000 0.06353420 0.06578700 255 85 0
0.03475000 0.06354500 0.06590700 255 85 0
0.03525000 0.06357740 0.06626700 255 85 0
0.03575000 0.06359900 0.06650700 255 85 0
0.03625000 0.06363140 0.06686710 255 85 0
0.03675000 0.06363140 0.06686710 255 85 0
0.03725000 0.06365290 0.06710710 255 85 0
0.03775000 0.06368530 0.06746710 255 85 0
0.03825000 0.06368530 0.06746710 255 85 0
0.03875000 0.06369610 0.06758710 255 85 0
0.03925000 0.06371770 0.06782720 255 85 0
0.03975000 0.06371770 0.06782720 255 85 0
0.04025000 0.06372850 0.06794720 255 85 0
0.04075000 0.06373930 0.06806720 255 85 0
0.04125000 0.06373930 0.06806720 255 85 0
0.04175000 0.06372850 0.06794720 255 85 0
0.04225000 0.06372850 0.06794720 255 85 0
0.04275000 0.06373930 0.06806720 255 85 0
0.04325000 0.06373930 0.06806720 255 85 0
0.04375000 0.06373930 0.06806720 255 85 0
0.04425000 0.06372850 0.06794720 255 85 0
0.04475000 0.06371770 0.06782720 255 85 0
0.04525000 0.06370690 0.06770720 255 85 0
0.04575000 0.06370690 0.06770720 255 85 0
0.04625000 0.06369610 0.06758710 255 85 0
0.04675000 0.06367450 0.06734710 255 85 0
0.04725000 0.06366370 0.06722710 255 85 0
0.04775000 0.06364220 0.06698710 255 85 0
0.04825000 0.06360980 0.06662710 255 85 0
0.04875000 0.06358820 0.06638700 255 85 0
0.04925000 0.06356660 0.06614700 255 85 0
0.04975000 0.06354500 0.06590700 255 85 0
0.05025000 0.06353420 0.06578700 255 85 0
0.05075000 0.06351260 0.06554700 255 85 0
0.05125000 0.06350180 0.06542690 255 85 0
0.05175000 0.06341550 0.06446680 255 85 0
0.05225000 0.06337230 0.06398680 255 85 0
0.05275000 0.06335070 0.06374680 255 85 0
0.05325000 0.06331830 0.06338670 255 85 0
-0.05450000 0.06672650 0.09570090 255 85 0
-0.05400000 0.06670340 0.09536060 255 85 0
-0.05350000 0.06671880 0.09558750 255 85 0
-0.05300000 0.06671110 0.09547400 255 85 0
-0.05250000 0.06671110 0.09547400 255 85 0
-0.05200000 0.06670340 0.09536060 255 85 0
-0.05150000 0.06668030 0.09502040 255 85 0
-0.05100000 0.06668030 0.09502040 255 85 0
-0.05050000 0.06663420 0.09433990 255 85 0
-0.05000000 0.06661880 0.09411310 255 85 0
-0.04950000 0.06659570 0.09377280 255 85 0
-0.04900000 0.06656500 0.09331910 255 85 0
-0.04850000 0.06654190 0.09297890 255 85 0
-0.04800000 0.06651890 0.09263860 255 85 0
-0.04750000 0.06647270 0.09195810 255 85 0
-0.04700000 0.06644970 0.09161790 255 85 0
-0.04650000 0.06641890 0.09116420 255 85 0
-0.04600000 0.06638050 0.09059720 255 85 0
-0.04550000 0.06633430 0.08991670 255 85 0
-0.04500000 0.06627280 0.08900940 255 85 0
-0.04450000 0.06622670 0.08832880 255 85 0
-0.04400000 0.06613930 0.08726860 255 85 0
-0.04350000 0.06600010 0.08570850 255 85 0
-0.04300000 0.06594650 0.08510850 255 85 0
-0.04250000 0.06588220 0.08438840 255 85 0
-0.04200000 0.06578580 0.08330840 255 85 0
-0.04150000 0.06573230 0.08270840 255 85 0
-0.04100000 0.06563590 0.08162830 255 85 0
-0.04050000 0.06555020 0.08066820 255 85 0
-0.04000000 0.06540020 0.07898820 255 85 0
-0.03950000 0.06528240 0.07766810 255 85 0
-0.03900000 0.06520740 0.07682800 255 85 0
-0.03850000 0.06511100 0.07574800 255 85 0
-0.03800000 0.06506810 0.07526800 255 85 0
-0.03750000 0.06498240 0.07430790 255 85 0
-0.03700000 0.06491820 0.07358790 255 85 0
-0.03650000 0.06482170 0.07250780 255 85 0
-0.03600000 0.06478960 0.07214780 255 85 0
-0.03550000 0.06472530 0.07142780 255 85 0
-0.03500000 0.06471460 0.07130780 255 85 0
-0.03450000 0.06470390 0.07118780 255 85 0
-0.03400000 0.06469320 0.07106770 255 85 0
-0.03350000 0.06468250 0.07094780 255 85 0
-0.03300000 0.06468250 0.07094780 255 85 0
-0.03250000 0.06467180 0.07082770 255 85 0
-0.03200000 0.06469320 0.07106770 255 85 0
-0.03150000 0.06470390 0.07118780 255 85 0
-0.03100000 0.06471460 0.07130780 255 85 0
-0.03050000 0.06475750 0.07178780 255 85 0
-0.03000000 0.06476820 0.07190780 255 85 0
-0.02950000 0.06481100 0.07238780 255 85 0
-0.02900000 0.06483250 0.07262780 255 85 0
-0.02850000 0.06486460 0.07298790 255 85 0
-0.02800000 0.06488600 0.07322780 255 85 0
-0.02750000 0.06492890 0.07370790 255 85 0
-0.02700000 0.06497170 0.07418790 255 85 0
-0.02650000 0.06502530 0.07478800 255 85 0
-0.02600000 0.06504670 0.07502800 255 85 0
-0.02550000 0.06511100 0.07574800 255 85 0
-0.02500000 0.06515380 0.07622800 255 85 0
-0.02450000 0.06518600 0.07658800 255 85 0
-0.02400000 0.06519670 0.07670800 255 85 0
-0.02350000 0.06525020 0.07730810 255 85 0
-0.02300000 0.06527170 0.07754810 255 85 0
-0.02250000 0.06530380 0.07790810 255 85 0
-0.02200000 0.06535730 0.07850810 255 85 0
-0.02150000 0.06540020 0.07898820 255 85 0
-0.02100000 0.06555020 0.08066820 255 85 0
-0.02050000 0.06556090 0.08078820 255 85 0
-0.02000000 0.06565730 0.08186830 255 85 0
-0.01950000 0.06593580 0.08498850 255 85 0
-0.01900000 0.06571090 0.08246830 255 85 0
-0.01850000 0.06603220 0.08606850 255 85 0
-0.01800000 0.06603220 0.08606850 255 85 0
-0.01750000 0.06581800 0.08366840 255 85 0
-0.01700000 0.06585010 0.08402840 255 85 0
-0.01600000 0.06597860 0.08546850 255 85 0
-0.01550000 0.06612860 0.08714860 255 85 0
-0.01500000 0.06631890 0.08968980 255 85 0
-0.01450000 0.06333280 0.05582700 255 85 0
-0.01400000 0.06633430 0.08991670 255 85 0
-0.01350000 0.06324710 0.05486690 255 85 0
-0.01300000 0.06638810 0.09071060 255 85 0
-0.01250000 0.06641120 0.09105080 255 85 0
-0.01200000 0.06640350 0.09093740 255 85 0
-0.01150000 0.06642660 0.09127770 255 85 0
-0.01100000 0.06299000 0.05198680 255 85 0
-0.01050000 0.06293640 0.05138680 255 85 0
-0.01000000 0.06651890 0.09263860 255 85 0
-0.00950000 0.06654190 0.09297890 255 85 0
-0.00900000 0.06654960 0.09309230 255 85 0
-0.00850000 0.06272220 0.04898660 255 85 0
-0.00800000 0.06223880 0.04357980 255 85 0
-0.00750000 0.06223880 0.04357980 255 85 0
0.01600000 0.06263590 0.04801980 255 85 0
0.01650000 0.06259050 0.04751230 255 85 0
0.01750000 0.06306500 0.05282690 255 85 0
0.01800000 0.06311850 0.05342690 255 85 0
0.01850000 0.06328990 0.05534700 255 85 0
0.01900000 0.06331130 0.05558700 255 85 0
0.01950000 0.06338630 0.05642700 255 85 0
0.02000000 0.06342920 0.05690710 255 85 0
0.02050000 0.06347200 0.05738710 255 85 0
0.02100000 0.06349350 0.05762710 255 85 0
0.02150000 0.06357910 0.05858710 255 85 0
0.02200000 0.06363270 0.05918720 255 85 0
0.02250000 0.06369700 0.05990720 255 85 0
0.02300000 0.06372910 0.06026720 255 85 0
0.02350000 0.06376130 0.06062720 255 85 0
0.02400000 0.06380410 0.06110730 255 85 0
0.02450000 0.06383620 0.06146730 255 85 0
0.02500000 0.06386840 0.06182730 255 85 0
0.02550000 0.06390050 0.06218730 255 85 0
0.02600000 0.06393260 0.06254730 255 85 0
0.02650000 0.06395410 0.06278740 255 85 0
0.02700000 0.06397550 0.06302730 255 85 0
0.02750000 0.06401830 0.06350740 255 85 0
0.02800000 0.06403980 0.06374740 255 85 0
0.02850000 0.06406120 0.06398740 255 85 0
0.02900000 0.06409330 0.06434740 255 85 0
0.02950000 0.06412550 0.06470740 255 85 0
0.03000000 0.06414690 0.06494750 255 85 0
0.03050000 0.06415760 0.06506740 255 85 0
0.03100000 0.06417900 0.06530750 255 85 0
0.03150000 0.06421120 0.06566750 255 85 0
0.03200000 0.06423260 0.06590750 255 85 0
0.03250000 0.06427540 0.06638750 255 85 0
0.03300000 0.06429690 0.06662750 255 85 0
0.03350000 0.06431830 0.06686750 255 85 0
0.03400000 0.06433970 0.06710760 255 85 0
0.03450000 0.06436110 0.06734760 255 85 0
0.03500000 0.06437180 0.06746760 255 85 0
0.03550000 0.06438260 0.06758760 255 85 0
0.03600000 0.06441470 0.06794760 255 85 0
0.03650000 0.06442540 0.06806760 255 85 0
0.03700000 0.06442540 0.06806760 255 85 0
0.03750000 0.06444680 0.06830760 255 85 0
0.03800000 0.06445750 0.06842760 255 85 0
0.03850000 0.06446820 0.06854760 255 85 0
0.03900000 0.06447900 0.06866760 255 85 0
0.03950000 0.06447900 0.06866760 255 85 0
0.04000000 0.06448970 0.06878770 255 85 0
0.04050000 0.06448970 0.06878770 255 85 0
0.04100000 0.06450040 0.06890760 255 85 0
0.04150000 0.06450040 0.06890760 255 85 0
0.04200000 0.06448970 0.06878770 255 85 0
0.04250000 0.06448970 0.06878770 255 85 0
0.04300000 0.06450040 0.06890760 255 85 0
0.04350000 0.06448970 0.06878770 255 85 0
0.04400000 0.06447900 0.06866760 255 85 0
0.04450000 0.06447900 0.06866760 255 85 0
0.04500000 0.06446820 0.06854760 255 85 0
0.04550000 0.06445750 0.06842760 255 85 0
0.04600000 0.06445750 0.06842760 255 85 0
0.04650000 0.06444680 0.06830760 255 85 0
0.04700000 0.06442540 0.06806760 255 85 0
0.04750000 0.06441470 0.06794760 255 85 0
0.04800000 0.06440400 0.06782760 255 85 0
0.04850000 0.06437180 0.06746760 255 85 0
0.04900000 0.06436110 0.06734760 255 85 0
0.04950000 0.06433970 0.06710760 255 85 0
0.05000000 0.06429690 0.06662750 255 85 0
0.05050000 0.06427540 0.06638750 255 85 0
0.05100000 0.06425400 0.06614750 255 85 0
0.05150000 0.06424330 0.06602750 255 85 0
0.05200000 0.06421120 0.06566750 255 85 0
0.05250000 0.06413620 0.06482740 255 85 0
0.05300000 0.06412550 0.06470740 255 85 0
0.05350000 0.06409330 0.06434740 255 85 0
0.05400000 0.06413620 0.06482740 255 85 0
0.05450000 0.06411470 0.06458740 255 85 0
-0.05525000 0.06746580 0.09672010 255 85 0
-0.05475000 0.06748110 0.09694690 255 85 0
-0.05425000 0.06751180 0.09740050 255 85 0
-0.05375000 0.06750410 0.09728710 255 85 0
-0.05325000 0.06750410 0.09728710 255 85 0
-0.05275000 0.06749640 0.09717370 255 85 0
-0.05225000 0.06747340 0.09683350 255 85 0
-0.05175000 0.06745810 0.09660670 255 85 0
-0.05125000 0.06743520 0.09626650 255 85 0
-0.05075000 0.06741980 0.09603970 255 85 0
-0.05025000 0.06738920 0.09558600 255 85 0
-0.04975000 0.06736620 0.09524580 255 85 0
-0.04925000 0.06733560 0.09479220 255 85 0
-0.04875000 0.06731260 0.09445200 255 85 0
-0.04825000 0.06727430 0.09388500 255 85 0
-0.04775000 0.06724370 0.09343140 255 85 0
-0.04725000 0.06720540 0.09286440 255 85 0
-0.04675000 0.06717470 0.09241080 255 85 0
-0.04625000 0.06712880 0.09173030 255 85 0
-0.04575000 0.06709810 0.09127670 255 85 0
-0.04525000 0.06706750 0.09082310 255 85 0
-0.04475000 0.06702150 0.09014270 255 85 0
-0.04425000 0.06693730 0.08889520 255 85 0
-0.04375000 0.06688370 0.08810140 255 85 0
-0.04325000 0.06679100 0.08702800 255 85 0
-0.04275000 0.06669530 0.08594800 255 85 0
-0.04225000 0.06661030 0.08498800 255 85 0
-0.04175000 0.06652520 0.08402800 255 85 0
-0.04125000 0.06645080 0.08318800 255 85 0
-0.04075000 0.06636580 0.08222800 255 85 0
-0.04025000 0.06628070 0.08126800 255 85 0
-0.03975000 0.06616380 0.07994800 255 85 0
-0.03925000 0.06601500 0.07826800 255 85 0
-0.03875000 0.06591930 0.07718800 255 85 0
-0.03825000 0.06581300 0.07598800 255 85 0
-0.03775000 0.06575990 0.07538800 255 85 0
-0.03725000 0.06568550 0.07454800 255 85 0
-0.03675000 0.06558980 0.07346800 255 85 0
-0.03625000 0.06550480 0.07250800 255 85 0
-0.03575000 0.06546230 0.07202800 255 85 0
-0.03525000 0.06539850 0.07130800 255 85 0
-0.03475000 0.06538790 0.07118800 255 85 0
-0.03425000 0.06537720 0.07106800 255 85 0
-0.03375000 0.06537720 0.07106800 255 85 0
-0.03325000 0.06535600 0.07082800 255 85 0
-0.03275000 0.06535600 0.07082800 255 85 0
-0.03225000 0.06535600 0.07082800 255 85 0
-0.03175000 0.06535600 0.07082800 255 85 0
-0.03125000 0.06536660 0.07094800 255 85 0
-0.03075000 0.06536660 0.07094800 255 85 0
-0.03025000 0.06538790 0.07118800 255 85 0
-0.02975000 0.06539850 0.07130800 255 85 0
-0.02925000 0.06541980 0.07154800 255 85 0
-0.02875000 0.06545160 0.07190800 255 85 0
-0.02825000 0.06547290 0.07214800 255 85 0
-0.02775000 0.06549420 0.07238800 255 85 0
-0.02725000 0.06551540 0.07262800 255 85 0
-0.02675000 0.06556860 0.07322800 255 85 0
-0.02625000 0.06562170 0.07382800 255 85 0
-0.02575000 0.06564300 0.07406800 255 85 0
-0.02525000 0.06568550 0.07454800 255 85 0
-0.02475000 0.06571740 0.07490800 255 85 0
-0.02425000 0.06578120 0.07562800 255 85 0
-0.02375000 0.06580240 0.07586800 255 85 0
-0.02325000 0.06581300 0.07598800 255 85 0
-0.02275000 0.06582370 0.07610800 255 85 0
-0.02225000 0.06584490 0.07634800 255 85 0
-0.02175000 0.06585560 0.07646800 255 85 0
-0.02125000 0.06587680 0.07670800 255 85 0
-0.02075000 0.06588750 0.07682800 255 85 0
-0.02025000 0.06591930 0.07718800 255 85 0
-0.01925000 0.06628070 0.08126800 255 85 0
-0.01875000 0.06450560 0.06122800 255 85 0
-0.01825000 0.06620630 0.08042800 255 85 0
-0.01775000 0.06445250 0.06062800 255 85 0
-0.01725000 0.06437810 0.05978800 255 85 0
-0.01675000 0.06434620 0.05942800 255 85 0
-0.01625000 0.06654650 0.08426800 255 85 0
-0.01575000 0.06421860 0.05798800 255 85 0
-0.01525000 0.06415480 0.05726800 255 85 0
-0.01475000 0.06410170 0.05666800 255 85 0
-0.01425000 0.06405920 0.05618800 255 85 0
-0.01375000 0.06400600 0.05558800 255 85 0
